ply
format ascii 1.0
element vertex 1259
property float x
property float y
property float z
property uchar red
property uchar green
property uchar blue
end_header
-0.129894 -0.119006 0.441130 76 0 153
-0.040424 -0.112816 0.499674 127 127 0
0.215445 0.774534 -0.170014 153 0 76
0.101438 -0.037637 0.457609 127 127 0
0.105615 -0.103162 0.350313 76 0 153
-0.430068 -0.695544 0.239481 255 0 0
-0.160825 -0.635577 0.155483 255 0 0
0.198824 0.021302 0.237582 127 127 0
-0.215412 0.501327 -0.262612 153 0 76
-0.068365 0.410023 -0.292778 153 0 76
-0.210120 0.191382 -0.122237 153 0 76
-0.185365 -0.132817 0.457420 76 0 153
0.103001 -0.039658 -0.095332 127 127 0
-0.278037 0.035430 -0.016515 127 127 0
-0.156343 0.265615 -0.117979 153 0 76
0.262257 0.343782 -0.207447 153 0 76
0.280142 0.034104 -0.031173 127 127 0
0.073087 -0.026708 0.048427 127 127 0
0.274956 -0.120397 0.397690 76 0 153
0.116115 0.020912 -0.228601 127 127 0
0.114814 -0.186760 0.321386 76 0 153
-0.197621 -0.135011 0.296461 76 0 153
0.005727 -0.372012 0.047897 76 153 0
0.179778 0.466287 -0.261943 153 0 76
0.327970 -0.046627 0.149987 127 127 0
-0.078277 -0.596198 0.077218 255 0 0
-0.046867 -0.125351 0.198562 0 0 255
-0.207489 0.764267 -0.175528 153 0 76
-0.274481 0.037018 -0.122268 127 127 0
0.171911 0.462263 -0.131055 153 0 76
0.007404 -0.138785 -0.186610 76 153 0
-0.032859 -0.820623 0.598025 76 0 153
0.083294 0.298617 -0.120582 153 0 76
0.191088 -0.028579 0.095561 127 127 0
-0.131248 0.039603 -0.123905 127 127 0
-0.127459 -0.024918 -0.011898 127 127 0
0.060180 -0.041276 -0.188357 127 127 0
0.193770 -0.113081 0.375005 76 0 153
-0.216408 0.837718 -0.185277 153 0 76
-0.137966 -0.167867 0.364770 76 0 153
0.124231 -0.161289 0.140274 76 0 153
-0.138280 -0.049138 0.172915 76 0 153
-0.096143 -0.168708 0.425997 0 0 255
-0.052658 -0.025743 0.015908 127 127 0
-0.033642 -0.442394 0.077853 0 127 127
0.103181 0.627709 -0.288226 153 0 76
-0.155780 0.018844 -0.222123 127 127 0
0.303275 -0.052754 0.214930 127 127 0
-0.196370 0.155366 -0.241502 153 0 76
-0.221365 0.016741 0.280788 127 127 0
0.126922 0.113962 -0.254661 153 0 76
0.228032 -0.038942 0.465940 127 127 0
-0.098428 0.138806 -0.273486 0 127 127
0.240972 0.143641 -0.123729 153 0 76
0.258780 0.779979 -0.204672 153 0 76
0.195684 0.072589 -0.192299 153 0 76
-0.314722 -0.069357 0.361832 127 127 0
0.490408 -0.737189 0.255018 204 51 127
-0.196764 0.460003 -0.131331 153 0 76
0.165746 -0.060285 0.157171 76 0 153
-0.171282 0.037168 -0.031721 127 127 0
-0.256006 0.032440 0.119212 127 127 0
0.116401 -0.611309 -0.128952 153 0 76
-0.046712 -0.039047 0.508948 127 127 0
-0.030100 0.012094 -0.192215 127 127 0
0.006022 -0.027493 0.074859 127 127 0
0.283286 -0.035182 -0.198007 127 127 0
0.071537 0.350325 -0.123342 153 0 76
0.120705 0.529756 -0.148542 153 0 76
0.096394 0.004587 0.358752 127 127 0
-0.513169 -0.714368 0.263740 255 0 0
-0.260203 -0.013845 -0.230645 127 127 0
0.005398 -0.641970 0.363488 0 0 255
0.038215 -0.547514 0.065658 153 0 76
0.297101 -0.108792 0.519720 127 127 0
-0.190924 -0.089785 -0.008562 76 0 153
0.227039 -0.660474 0.142818 204 51 127
-0.048094 -0.756244 0.086139 0 127 127
0.117532 0.035935 0.010986 127 127 0
0.041798 -0.098850 -0.076395 76 153 0
-0.201169 -0.030527 0.412067 127 127 0
0.216855 0.249261 -0.219974 153 0 76
0.040294 -0.127514 0.122887 0 0 255
-0.260399 0.499176 -0.127056 153 0 76
0.087263 0.446727 -0.286945 153 0 76
0.009756 -0.590618 0.147176 0 0 255
-0.069593 -0.071902 0.379898 127 127 0
-0.059840 -0.099910 -0.068207 76 153 0
0.323876 -0.007845 0.272009 127 127 0
-0.026208 -0.656557 0.115369 0 127 127
-0.086791 0.035577 0.023277 127 127 0
-0.105390 -0.102845 -0.045538 76 153 0
0.008548 -0.024476 -0.089791 127 127 0
0.293866 -0.680773 -0.310463 153 0 76
0.208281 0.031638 0.136335 127 127 0
0.017196 -0.817335 0.543332 153 0 76
-0.241921 -0.627143 0.136748 255 0 0
-0.030271 -0.628931 0.466388 0 0 255
-0.483947 -0.733857 0.191405 153 0 76
-0.121797 -0.033830 0.433088 127 127 0
0.151672 -0.146848 0.235443 76 0 153
0.042989 -0.054416 0.234233 127 127 0
-0.095899 -0.621818 -0.064104 0 255 0
0.151260 0.016910 0.279394 127 127 0
-0.003944 -0.040455 -0.157635 127 127 0
-0.040301 -0.284671 0.037764 153 0 76
-0.142765 0.857865 -0.206603 153 0 76
0.067223 0.015791 0.290505 127 127 0
-0.208739 -0.046142 0.299579 127 127 0
-0.235151 0.008319 -0.192215 127 127 0
0.167003 0.036500 -0.008397 127 127 0
0.140119 -0.028211 0.397324 127 127 0
0.186899 0.742710 -0.272285 153 0 76
0.275676 0.692912 -0.184081 153 0 76
-0.327985 0.495131 -0.158874 153 0 76
-0.035519 -0.622850 0.301481 0 0 255
-0.078305 -0.136379 -0.205193 76 153 0
0.067817 -0.141166 -0.133284 76 153 0
0.309830 -0.047031 0.307887 127 127 0
0.205811 0.183979 -0.230854 153 0 76
0.212937 -0.034831 0.186591 127 127 0
0.018504 -0.743524 0.086858 0 127 127
0.062029 -0.610154 0.085397 204 51 127
-0.072195 0.461050 -0.294528 153 0 76
0.198422 -0.008411 -0.192215 127 127 0
0.082169 0.883662 -0.271774 153 0 76
-0.197803 -0.088470 0.140532 76 0 153
-0.354254 -0.017863 0.200219 127 127 0
0.032044 0.632841 -0.170449 153 0 76
-0.113408 0.805793 -0.192971 153 0 76
-0.311850 0.008361 -0.189734 127 127 0
-0.136166 -0.084332 0.252398 76 0 153
0.166946 0.157807 -0.131791 153 0 76
0.073804 0.511244 -0.148780 153 0 76
-0.023310 -0.033424 0.166102 127 127 0
0.221436 0.709354 -0.261258 153 0 76
-0.051901 -0.740579 0.581194 76 0 153
-0.329625 0.231233 -0.152096 153 0 76
-0.493757 -0.784270 0.259708 153 0 76
0.169612 -0.586270 0.165314 204 51 127
0.159941 0.307848 -0.112903 153 0 76
-0.003976 0.887138 -0.263193 153 0 76
0.129891 0.033869 0.081913 127 127 0
0.143908 0.338211 -0.226589 0 127 127
-0.114231 0.220965 -0.126535 153 0 76
-0.081757 -0.040058 -0.022134 127 127 0
-0.281414 -0.009352 0.417734 127 127 0
-0.240682 -0.073316 0.529965 127 127 0
0.059345 0.189130 -0.257695 0 127 127
-0.282480 0.170649 -0.115190 153 0 76
0.038494 -0.086673 -0.170432 76 153 0
-0.096198 -0.111787 0.023510 76 153 0
0.002856 -0.694097 0.591638 0 0 255
-0.305866 -0.120980 0.430381 76 0 153
-0.134249 -0.086302 0.349347 76 0 153
-0.280008 0.140235 -0.230219 153 0 76
-0.134346 0.559693 -0.287255 153 0 76
-0.161685 0.875136 -0.276541 153 0 76
0.117662 0.756383 -0.183769 153 0 76
-0.142269 -0.171910 0.152593 76 0 153
0.028768 -0.211832 0.415773 204 51 127
0.000410 0.345556 -0.292060 153 0 76
-0.075558 0.883895 -0.230551 153 0 76
0.237754 0.550311 -0.134766 153 0 76
-0.207582 -0.592412 0.126238 255 0 0
-0.020884 0.085109 -0.181026 153 0 76
0.068257 0.308127 -0.244554 0 127 127
-0.174677 -0.014730 -0.192215 127 127 0
-0.270164 0.384067 -0.189564 0 127 127
0.031645 -0.314024 0.069717 153 0 76
0.013110 -0.030094 0.353777 127 127 0
-0.283809 0.027497 0.179072 127 127 0
-0.387304 -0.660275 0.225109 255 0 0
-0.002470 -0.778136 0.620891 153 0 76
-0.098891 0.463004 -0.140760 153 0 76
-0.536318 -0.821421 0.237207 76 0 153
-0.165587 -0.633284 -0.156843 0 255 0
0.112117 -0.071754 -0.020888 76 0 153
-0.144051 0.436596 -0.133062 153 0 76
-0.100029 -0.039196 -0.232019 127 127 0
0.317229 -0.021739 0.048744 127 127 0
0.021377 -0.101042 0.346161 0 0 255
-0.526885 -0.773798 0.163696 76 0 153
-0.003262 0.482683 -0.298381 153 0 76
-0.291654 0.433675 -0.109075 153 0 76
-0.105688 0.325995 -0.121238 153 0 76
0.064402 -0.084724 -0.271735 76 153 0
0.324582 -0.814368 -0.383333 0 255 0
-0.122214 -0.159846 0.267238 76 153 0
0.264246 0.441278 -0.211625 153 0 76
-0.098091 0.032904 0.109428 127 127 0
-0.072877 0.612801 -0.295838 153 0 76
0.006927 -0.733481 0.552680 153 0 76
0.076585 -0.585654 0.137096 204 51 127
-0.002639 0.012890 -0.232019 127 127 0
0.038569 -0.085786 0.506442 127 127 0
-0.166401 0.539509 -0.149162 153 0 76
0.082947 0.452002 -0.137871 153 0 76
0.020784 -0.590429 -0.001381 153 0 76
-0.023668 -0.137282 -0.033688 76 153 0
0.215339 -0.664213 -0.262941 153 0 76
-0.215065 0.389963 -0.251993 153 0 76
0.037933 -0.248591 0.080459 153 0 76
-0.143839 -0.159290 0.046433 76 0 153
0.167148 -0.092825 0.207269 76 0 153
0.296705 -0.674635 0.207369 204 51 127
-0.146683 -0.597147 -0.129516 0 255 0
-0.088969 0.067688 -0.244929 153 0 76
0.088929 -0.107193 -0.082858 76 153 0
-0.142429 -0.059410 -0.085645 76 0 153
0.229971 -0.082575 0.446429 127 127 0
-0.030626 0.212899 -0.239835 153 0 76
0.104941 -0.122694 0.432303 0 0 255
-0.328731 -0.039837 -0.109330 127 127 0
-0.081584 -0.163888 0.070020 0 0 255
-0.136995 -0.135428 0.327502 76 0 153
0.170895 0.846811 -0.281129 153 0 76
-0.091495 -0.141177 0.305397 0 0 255
0.179227 -0.080606 0.530974 127 127 0
0.210121 -0.654348 -0.192010 153 0 76
0.071033 -0.035504 0.196391 127 127 0
0.085368 0.094618 -0.169231 153 0 76
0.298374 0.022283 0.222413 127 127 0
0.273554 -0.032127 0.422428 127 127 0
-0.185063 0.362854 -0.116868 153 0 76
0.279696 -0.070151 0.368353 127 127 0
-0.126852 0.066138 -0.196622 153 0 76
-0.019265 0.167461 -0.261430 0 127 127
0.062098 -0.152065 0.282665 76 153 0
-0.243453 -0.027413 0.490318 127 127 0
-0.012998 0.465552 -0.141972 153 0 76
0.294911 0.360247 -0.164198 153 0 76
-0.247004 -0.039917 -0.029133 127 127 0
-0.137226 0.106491 -0.258103 153 0 76
-0.283098 0.753228 -0.231300 153 0 76
0.106791 -0.083298 0.248972 76 0 153
-0.010555 -0.681439 0.051982 0 127 127
0.195971 -0.042427 0.335489 127 127 0
0.152417 -0.600935 0.117186 204 51 127
0.107746 -0.151739 0.356323 76 0 153
-0.035281 -0.046095 0.299137 127 127 0
-0.266362 0.036799 -0.168778 127 127 0
-0.073235 0.037115 -0.029502 127 127 0
-0.016185 0.009076 0.339927 127 127 0
0.307439 0.321965 -0.124684 153 0 76
-0.051561 -0.220454 0.325695 0 0 255
-0.032568 -0.067688 -0.317050 76 153 0
0.219223 0.092622 -0.240732 153 0 76
-0.180766 -0.023813 0.369331 127 127 0
0.285941 -0.778136 -0.361541 0 0 255
-0.489413 -0.818649 0.184775 153 0 76
0.079046 0.707835 -0.180012 153 0 76
-0.236305 -0.050402 0.187605 127 127 0
-0.099375 0.778355 -0.294167 153 0 76
0.005247 -0.671172 0.427268 0 0 255
-0.227752 -0.024751 -0.118713 127 127 0
0.167534 0.269264 -0.226540 153 0 76
0.299918 0.171349 -0.144205 153 0 76
-0.019044 0.081542 -0.276239 0 127 127
0.072699 0.357366 -0.283232 153 0 76
-0.221014 -0.036423 0.344392 127 127 0
0.010649 -0.091799 -0.130843 76 153 0
-0.334480 -0.765069 -0.326292 127 127 0
-0.039926 -0.354278 0.037664 153 0 76
-0.317008 0.532481 -0.128437 153 0 76
0.158657 -0.124891 0.116214 76 0 153
0.008593 0.294370 -0.254431 0 127 127
-0.091495 -0.144757 0.381031 0 0 255
0.252236 -0.040531 -0.163575 127 127 0
-0.069446 -0.027093 0.061377 127 127 0
-0.050368 -0.595482 0.132797 76 153 0
0.036129 0.432510 -0.294308 153 0 76
-0.308692 -0.048163 0.318473 127 127 0
0.472207 -0.736515 0.186657 204 51 127
-0.067789 0.224323 -0.127447 153 0 76
-0.139462 -0.065851 0.062416 76 0 153
-0.016494 0.636215 -0.298645 153 0 76
-0.189701 -0.136675 0.218827 76 0 153
-0.010751 -0.032273 0.423176 127 127 0
0.400134 -0.667170 0.200472 204 51 127
0.087278 0.022437 0.227082 127 127 0
0.017460 -0.121981 0.482426 76 0 153
0.269227 0.406868 -0.102989 153 0 76
-0.065264 -0.355016 0.096576 153 0 76
-0.544852 -0.735536 0.237330 76 0 153
0.142693 -0.635440 -0.165198 153 0 76
0.162815 0.215374 -0.119191 153 0 76
-0.178705 -0.110136 0.498949 127 127 0
-0.000460 -0.618671 0.108405 0 127 127
-0.113249 0.144063 -0.143903 153 0 76
0.186001 -0.030443 0.411675 127 127 0
0.021350 0.155984 -0.142263 153 0 76
-0.488668 -0.658367 0.253452 255 0 0
0.170120 0.012223 0.323958 127 127 0
0.327398 -0.024460 0.365881 127 127 0
-0.138188 0.654483 -0.170301 153 0 76
-0.191501 0.102394 -0.251029 153 0 76
-0.153679 -0.031161 0.133153 127 127 0
0.065170 -0.157991 0.204385 76 153 0
-0.232478 0.669945 -0.159325 153 0 76
-0.011973 0.031549 0.138187 127 127 0
0.032836 0.442771 -0.137586 153 0 76
-0.219696 -0.650316 -0.164215 0 255 0
-0.312608 -0.032329 0.150168 127 127 0
-0.091425 -0.119734 0.525280 127 127 0
-0.146537 0.005477 0.354824 127 127 0
0.013689 -0.242371 0.129709 153 0 76
-0.219690 0.746298 -0.271261 153 0 76
0.033885 -0.083329 0.451132 127 127 0
-0.180293 0.039475 -0.126847 127 127 0
0.288629 -0.030697 0.126394 127 127 0
0.282626 0.643583 -0.179682 153 0 76
0.273313 0.033684 0.056076 127 127 0
0.265933 -0.024383 -0.029916 127 127 0
0.219925 0.349783 -0.244794 0 127 127
-0.188528 0.292524 -0.266148 0 127 127
-0.337753 0.358895 -0.121040 153 0 76
-0.033672 -0.147312 -0.120763 76 153 0
-0.303857 0.226220 -0.098942 153 0 76
0.012023 -0.209293 0.267191 0 0 255
-0.054990 0.443507 -0.137801 153 0 76
0.303162 0.479418 -0.139701 153 0 76
0.231434 0.552666 -0.246627 153 0 76
0.079705 -0.603445 -0.080002 153 0 76
-0.312497 0.007163 0.346711 127 127 0
-0.197893 -0.056623 0.035817 76 0 153
0.182312 0.573691 -0.267781 153 0 76
0.187408 0.037771 -0.052001 127 127 0
0.059288 -0.013667 -0.340579 0 127 127
-0.011042 -0.549910 0.066914 0 127 127
0.045966 -0.122378 -0.004651 76 153 0
-0.051576 -0.157736 0.026720 0 0 255
0.271907 0.507181 -0.209642 153 0 76
-0.282756 -0.704568 -0.311694 0 255 0
-0.052542 0.142806 -0.145598 153 0 76
0.245329 0.385821 -0.232288 0 127 127
0.122378 0.028537 0.169261 127 127 0
-0.203356 -0.648857 0.168904 255 0 0
0.037798 -0.127514 0.175484 0 0 255
-0.058021 0.000533 0.376116 127 127 0
-0.259141 0.575905 -0.249400 153 0 76
0.158376 -0.081844 0.441870 127 127 0
-0.158075 0.017650 0.272465 127 127 0
0.244790 0.036888 -0.186814 127 127 0
-0.311687 -0.650817 -0.314975 0 255 0
-0.093799 -0.107326 -0.298774 76 153 0
0.051248 -0.033231 -0.232019 127 127 0
-0.032605 -0.099052 0.358240 0 0 255
0.258939 0.036504 -0.117643 127 127 0
-0.006133 0.136438 -0.314393 0 127 127
0.068791 0.607032 -0.165423 153 0 76
-0.145234 -0.127682 -0.076297 76 0 153
0.442857 -0.753098 0.218182 76 0 153
0.006226 -0.605836 0.252278 0 0 255
-0.093799 -0.104872 -0.158074 76 153 0
-0.280317 -0.631124 0.191518 255 0 0
0.163725 -0.079926 0.296568 76 0 153
0.153209 -0.040061 -0.126861 127 127 0
-0.092699 0.512057 -0.149561 153 0 76
-0.052366 0.811564 -0.196465 153 0 76
-0.018312 -0.052047 0.206708 127 127 0
0.143581 0.038692 -0.146147 127 127 0
0.037086 -0.156144 0.040752 0 0 255
-0.345475 -0.644966 0.171965 255 0 0
-0.211182 -0.654643 -0.218399 0 255 0
-0.018370 -0.079266 -0.227637 76 153 0
0.014975 -0.510173 0.056637 0 127 127
0.480569 -0.661729 0.228608 204 51 127
-0.098304 0.586978 -0.162277 153 0 76
0.311743 -0.018417 0.002854 127 127 0
0.081864 0.301424 -0.287402 0 127 127
-0.015507 -0.168498 0.412872 0 0 255
-0.280008 -0.041324 0.040777 127 127 0
0.118336 -0.005130 -0.192215 127 127 0
0.119093 -0.035910 0.202302 127 127 0
0.296071 -0.734886 -0.391853 0 0 255
0.050295 0.034089 0.074335 127 127 0
0.053787 -0.181528 0.074828 0 0 255
-0.202007 0.697752 -0.274672 153 0 76
0.201037 -0.039617 0.238582 127 127 0
-0.097504 0.274874 -0.238076 153 0 76
0.056162 -0.204311 0.150287 0 0 255
-0.230842 0.874820 -0.249538 153 0 76
-0.049077 -0.120736 -0.353789 0 127 127
0.168987 -0.067409 0.040581 76 0 153
-0.123384 -0.577545 0.141812 255 0 0
0.124343 0.666507 -0.170534 153 0 76
0.281274 -0.700624 -0.352307 0 0 255
0.097298 -0.028309 0.091638 127 127 0
0.160659 0.647206 -0.276064 153 0 76
-0.206304 -0.024035 -0.043386 127 127 0
-0.091495 -0.154964 0.224072 0 0 255
-0.098204 -0.024327 0.372602 127 127 0
-0.341556 -0.099530 0.516085 127 127 0
0.104056 -0.580005 -0.044727 153 0 76
0.256307 -0.755707 -0.337391 255 0 0
-0.273155 0.759564 -0.162514 153 0 76
-0.273420 0.660738 -0.246333 153 0 76
-0.138445 -0.128262 0.240804 76 0 153
0.022164 -0.181105 0.342639 0 0 255
0.278411 0.105825 -0.173417 153 0 76
-0.007241 -0.507726 0.124902 0 127 127
-0.281851 -0.025510 -0.176394 127 127 0
0.186567 -0.021988 0.469668 127 127 0
-0.294593 0.017151 0.276771 127 127 0
-0.029307 -0.032802 -0.343917 0 127 127
0.047405 0.064513 -0.231758 153 0 76
-0.224173 0.012106 0.324942 127 127 0
0.031057 -0.097699 -0.355238 76 153 0
-0.274748 -0.037036 0.453496 127 127 0
0.334768 -0.654420 0.218095 204 51 127
-0.097819 -0.066098 0.335068 127 127 0
-0.146859 0.770761 -0.288243 153 0 76
-0.281218 0.033830 0.083156 127 127 0
-0.323220 -0.735612 -0.393616 127 127 0
-0.350355 -0.041906 0.461416 127 127 0
-0.032660 -0.666074 0.528477 0 0 255
-0.051520 -0.480127 0.064445 0 127 127
-0.309271 -0.116697 0.386915 76 0 153
0.301987 0.276781 -0.148813 153 0 76
-0.283127 -0.818707 -0.345134 0 127 127
-0.072036 -0.024296 -0.070857 127 127 0
0.089828 -0.131029 0.172116 76 153 0
-0.272870 -0.669533 -0.239262 0 255 0
-0.110287 0.183443 -0.242070 153 0 76
0.129957 -0.150379 0.095352 76 0 153
-0.056793 0.396903 -0.129851 153 0 76
0.108932 -0.074093 0.129636 76 0 153
0.092817 -0.148796 0.244549 76 153 0
0.113003 0.581600 -0.286136 153 0 76
-0.303421 -0.078710 0.530712 127 127 0
-0.016828 0.344171 -0.123515 153 0 76
0.024507 -0.075970 -0.253088 76 153 0
0.246364 0.021516 0.235559 127 127 0
-0.241921 -0.028221 0.397384 127 127 0
-0.013601 -0.127250 -0.275697 76 153 0
-0.088224 0.725554 -0.184101 153 0 76
0.012233 0.201781 -0.131249 153 0 76
0.073606 -0.080226 0.431790 127 127 0
0.318177 -0.044942 0.485040 127 127 0
-0.051201 -0.578648 -0.002349 0 255 0
-0.091495 -0.186984 0.285630 0 0 255
-0.032658 -0.726012 0.112862 0 127 127
0.092817 -0.129472 0.075242 76 153 0
-0.050371 -0.056696 0.257849 127 127 0
-0.141302 -0.060071 -0.032708 76 0 153
-0.031816 0.039323 -0.105250 127 127 0
-0.102061 -0.566359 -0.000965 0 255 0
-0.035123 0.545689 -0.298194 153 0 76
-0.110557 -0.036079 0.204763 127 127 0
-0.203720 -0.042781 -0.224894 127 127 0
-0.022160 0.034070 0.074986 127 127 0
0.086386 -0.186137 0.179079 76 153 0
-0.161277 -0.594797 0.110071 255 0 0
0.208717 -0.039735 -0.101385 127 127 0
0.227978 -0.006159 -0.231022 127 127 0
-0.063392 0.062748 -0.279478 0 127 127
0.156792 -0.670281 -0.186024 153 0 76
0.081356 0.159199 -0.140262 153 0 76
0.122693 0.829650 -0.289287 153 0 76
0.107649 -0.119230 0.507683 127 127 0
0.093191 0.216673 -0.126476 153 0 76
0.119004 0.069161 -0.187800 153 0 76
-0.003909 -0.040142 -0.297212 0 127 127
0.081650 -0.069997 0.367087 127 127 0
0.226251 -0.600255 0.183039 204 51 127
-0.057503 0.038020 -0.167438 127 127 0
-0.005970 -0.365584 0.088575 76 153 0
0.064402 -0.133293 -0.223908 76 153 0
-0.253250 -0.078182 0.419043 127 127 0
-0.068438 -0.108804 0.459326 0 0 255
0.284793 -0.079289 0.425944 127 127 0
0.212089 0.668653 -0.157902 153 0 76
-0.252965 0.340868 -0.220832 153 0 76
0.133975 -0.025745 0.483972 127 127 0
-0.141812 -0.137934 0.097302 76 0 153
-0.034421 -0.802983 0.104924 0 127 127
-0.278436 -0.035403 0.194920 127 127 0
-0.312698 0.613138 -0.192855 153 0 76
-0.026153 -0.041782 -0.201701 127 127 0
0.062098 -0.173388 0.365427 0 0 255
-0.150423 0.695006 -0.175420 153 0 76
0.121473 -0.032871 0.158048 127 127 0
-0.251873 -0.043726 0.276997 127 127 0
-0.099289 -0.016431 -0.293125 0 127 127
0.132578 0.377121 -0.270206 153 0 76
0.071549 0.860890 -0.211217 153 0 76
-0.070335 0.102473 -0.320319 0 127 127
0.052595 0.038276 -0.196774 127 127 0
-0.472254 -0.781667 0.223094 153 0 76
0.148504 -0.055243 -0.035482 76 0 153
0.172647 -0.025943 0.022629 127 127 0
-0.099173 -0.188783 0.199516 76 153 0
0.451708 -0.809894 0.249037 76 0 153
0.063646 0.161746 -0.289886 0 127 127
0.102366 0.038376 -0.072779 127 127 0
-0.268770 -0.090871 0.348585 76 0 153
-0.354990 -0.028717 0.295390 127 127 0
0.211273 -0.070117 0.368076 127 127 0
0.187970 0.338219 -0.217841 0 127 127
0.260525 0.034702 0.008022 127 127 0
-0.096180 -0.025027 -0.147791 127 127 0
0.016505 0.273538 -0.122688 153 0 76
0.076296 -0.000406 -0.192215 127 127 0
0.182589 0.746275 -0.173283 153 0 76
0.003720 -0.657017 0.476842 0 0 255
-0.356207 -0.070313 0.369687 127 127 0
-0.164814 -0.129376 -0.038837 76 0 153
0.097755 -0.072734 0.508855 127 127 0
-0.012318 -0.195737 0.379799 204 51 127
-0.247283 -0.029834 0.113831 127 127 0
0.159748 0.022953 -0.228691 127 127 0
-0.055939 0.295159 -0.248611 0 127 127
0.464360 -0.806413 0.175765 76 0 153
-0.090632 -0.169235 0.124510 0 0 255
-0.149607 -0.040506 -0.161634 127 127 0
0.004458 0.038446 -0.199155 127 127 0
0.041431 0.537570 -0.154195 153 0 76
0.121686 0.776071 -0.287239 153 0 76
-0.069149 -0.199118 0.043545 0 0 255
-0.178340 0.034202 0.070463 127 127 0
-0.317416 -0.039942 -0.027881 127 127 0
0.304072 -0.002463 -0.053843 127 127 0
0.164066 -0.109645 0.036775 76 0 153
0.312878 -0.017541 0.422016 127 127 0
0.001349 0.834782 -0.200730 153 0 76
0.071995 -0.087197 -0.312901 0 127 127
-0.354077 -0.024708 0.337419 127 127 0
0.065306 0.039449 -0.109582 127 127 0
-0.035390 0.607401 -0.166643 153 0 76
0.244042 0.705018 -0.156238 153 0 76
-0.137774 0.644608 -0.288242 153 0 76
0.103050 0.382092 -0.124787 153 0 76
-0.344899 -0.008083 0.043566 127 127 0
-0.225157 0.035269 0.033700 127 127 0
-0.082116 -0.154339 -0.066496 76 153 0
0.011885 -0.626348 0.017934 76 153 0
-0.324212 -0.008893 0.412711 127 127 0
-0.195386 0.038064 -0.202357 127 127 0
0.251775 -0.025744 0.381672 127 127 0
-0.206100 -0.039325 0.468384 127 127 0
0.115873 -0.137176 -0.072336 76 0 153
-0.324361 -0.776103 -0.419111 127 127 0
-0.121114 0.311525 -0.240253 153 0 76
0.039547 0.025749 0.195774 127 127 0
-0.269679 0.834568 -0.181573 153 0 76
-0.277299 0.342484 -0.099375 153 0 76
-0.310006 -0.083165 0.450109 127 127 0
0.109071 0.017916 0.270036 127 127 0
0.159711 -0.654882 -0.119607 153 0 76
0.295587 -0.778136 -0.321231 0 0 255
-0.298956 0.101436 -0.151008 153 0 76
0.034907 -0.041346 0.041881 127 127 0
-0.040110 -0.429459 0.116950 0 127 127
0.053333 0.008885 0.340540 127 127 0
0.027249 -0.154542 -0.024653 76 153 0
0.107708 -0.132437 0.315724 76 0 153
0.031551 0.156637 -0.263296 0 127 127
-0.073168 0.019730 -0.201300 127 127 0
-0.186135 0.350760 -0.268969 0 127 127
-0.061206 0.697604 -0.296230 153 0 76
0.296015 -0.002666 -0.124598 127 127 0
-0.350484 -0.049008 0.171409 127 127 0
-0.337519 -0.827525 -0.367694 127 0 127
-0.100383 -0.629281 0.095788 255 0 0
-0.141444 -0.041062 0.027756 76 0 153
-0.087484 0.075378 -0.188814 153 0 76
0.289731 0.572278 -0.178782 153 0 76
0.125672 -0.070109 0.368009 127 127 0
0.191085 0.387371 -0.249662 153 0 76
0.027266 -0.186291 0.301116 0 0 255
0.003410 -0.686027 0.548242 0 0 255
0.017970 0.040770 -0.283266 0 127 127
0.016321 -0.704457 0.074321 0 127 127
0.051047 -0.554767 0.128120 204 51 127
-0.180916 0.498420 -0.140230 153 0 76
-0.092349 0.370975 -0.125408 153 0 76
-0.032097 -0.549910 0.102698 0 127 127
-0.120457 -0.080961 0.531023 127 127 0
-0.033570 -0.636745 0.426253 0 0 255
0.161710 0.502165 -0.270071 153 0 76
-0.091276 0.824415 -0.296434 153 0 76
-0.198750 -0.087359 0.531909 127 127 0
0.161946 0.501176 -0.139146 153 0 76
0.026591 -0.008856 0.415887 127 127 0
0.244470 0.030007 0.155383 127 127 0
-0.003309 -0.618671 0.055144 0 127 127
-0.192118 0.313388 -0.230542 153 0 76
-0.258737 0.734509 -0.259244 153 0 76
-0.234149 0.024077 0.211373 127 127 0
-0.327201 -0.706739 -0.358716 0 255 0
-0.224952 -0.046775 0.144365 127 127 0
-0.027956 -0.073173 0.529945 127 127 0
0.093326 0.034513 0.059803 127 127 0
0.260984 -0.099245 0.315043 76 0 153
0.128720 0.258486 -0.242615 0 127 127
0.058718 0.769601 -0.294772 153 0 76
-0.111845 -0.043233 0.272382 127 127 0
-0.014923 0.387234 -0.296504 153 0 76
0.111637 -0.083540 0.022939 76 0 153
-0.224271 0.661332 -0.267234 153 0 76
-0.121757 -0.122918 0.482471 76 0 153
0.202296 0.035825 0.014781 127 127 0
0.022518 -0.399005 0.103405 76 153 0
0.062389 0.226489 -0.237181 153 0 76
-0.059687 -0.046333 0.136057 127 127 0
-0.050230 0.531392 -0.153358 153 0 76
0.221612 0.857291 -0.191151 153 0 76
0.018655 0.211655 -0.300713 0 127 127
0.191481 0.815518 -0.179179 153 0 76
-0.283027 -0.770766 -0.364416 0 127 127
0.021077 0.753806 -0.188634 153 0 76
0.272860 -0.097861 0.488591 127 127 0
-0.311272 -0.097059 0.488739 127 127 0
-0.248687 0.036778 -0.044514 127 127 0
0.198612 0.870991 -0.264002 153 0 76
-0.052483 -0.780346 0.560676 76 0 153
-0.172313 -0.035979 0.203305 127 127 0
0.099310 -0.065404 0.329368 127 127 0
-0.105856 -0.637947 -0.010046 0 255 0
0.168388 -0.082704 0.123543 76 0 153
-0.144611 -0.079406 0.426675 127 127 0
0.158456 -0.088493 0.483322 76 0 153
-0.239805 0.421143 -0.243907 153 0 76
0.189196 -0.632170 -0.163457 153 0 76
0.223053 -0.686909 -0.219691 153 0 76
-0.287556 0.409080 -0.216152 153 0 76
0.001396 -0.069270 0.361118 127 127 0
-0.004291 0.042930 -0.330706 0 127 127
-0.245975 0.408954 -0.114075 153 0 76
0.190829 0.784756 -0.272898 153 0 76
0.244675 0.439414 -0.113891 153 0 76
0.006715 -0.654470 0.321330 0 0 255
0.285719 -0.027797 0.357184 127 127 0
-0.322506 0.031725 0.082564 127 127 0
-0.306122 -0.027459 0.490493 127 127 0
-0.313766 -0.026015 0.025079 127 127 0
-0.138223 -0.084604 0.153924 76 0 153
0.015977 -0.058714 0.274426 127 127 0
0.268483 -0.658988 -0.332777 153 0 76
-0.051561 -0.199447 0.240322 0 0 255
0.010656 0.249419 -0.260069 0 127 127
-0.164802 -0.024112 -0.039062 127 127 0
-0.085974 -0.556624 0.085050 255 0 0
0.060842 0.265835 -0.290551 0 127 127
0.518117 -0.782025 0.198633 153 0 76
-0.301955 0.164473 -0.204133 153 0 76
-0.239195 -0.040406 -0.153766 127 127 0
-0.125873 0.234334 -0.254808 0 127 127
-0.003276 -0.106616 0.312315 0 0 255
-0.307744 0.292328 -0.092589 153 0 76
0.020109 -0.041530 -0.195506 127 127 0
-0.354012 -0.041991 0.091189 127 127 0
-0.011705 -0.468043 0.126098 0 127 127
0.115394 -0.629363 -0.057696 153 0 76
-0.126321 0.735577 -0.290530 153 0 76
-0.122214 -0.137691 0.204678 76 153 0
-0.022433 -0.101977 -0.052238 76 153 0
0.061388 0.696601 -0.294040 153 0 76
-0.469647 -0.700618 0.251679 255 0 0
0.072411 0.791395 -0.191679 153 0 76
0.237218 -0.042482 0.265363 127 127 0
-0.129575 0.328442 -0.278148 0 127 127
0.131756 -0.042949 -0.228484 127 127 0
-0.122214 -0.115244 -0.011590 76 153 0
0.351826 -0.640721 0.184779 204 51 127
-0.142279 -0.118269 0.030009 76 0 153
-0.060171 0.303845 -0.121579 153 0 76
0.118430 -0.577950 0.106323 204 51 127
0.197471 -0.024396 0.373040 127 127 0
-0.134096 -0.013255 -0.232019 127 127 0
-0.308161 0.574893 -0.134441 153 0 76
-0.004857 -0.770866 0.053508 0 127 127
0.191575 -0.039396 -0.054993 127 127 0
-0.170086 0.821305 -0.285293 153 0 76
-0.030235 -0.026890 0.054561 127 127 0
-0.329887 -0.060161 0.286309 127 127 0
-0.194045 -0.096306 0.313559 76 0 153
-0.169555 -0.044376 0.099218 127 127 0
0.035589 0.884575 -0.276286 153 0 76
0.502756 -0.824530 0.225757 153 0 76
0.035968 0.036102 0.005268 127 127 0
0.429180 -0.687256 0.248023 204 51 127
-0.121307 -0.623539 -0.097760 0 255 0
0.016881 0.657522 -0.297054 153 0 76
0.088647 -0.633641 0.142673 204 51 127
-0.163740 -0.043329 0.491986 127 127 0
-0.061206 -0.622483 0.101436 76 153 0
0.026658 0.075187 -0.325079 0 127 127
-0.305884 0.681984 -0.187260 153 0 76
0.024677 -0.134217 -0.221890 76 153 0
-0.041596 -0.127514 0.104318 0 0 255
-0.213622 0.032348 0.121169 127 127 0
-0.231312 0.808055 -0.271716 153 0 76
0.293042 0.350704 -0.094006 153 0 76
-0.109387 0.275980 -0.287981 0 127 127
0.043879 -0.046292 0.135286 127 127 0
-0.171339 -0.135138 0.066766 76 0 153
0.027579 0.822240 -0.298156 153 0 76
0.025770 0.863159 -0.214844 153 0 76
0.248414 0.035980 -0.054953 127 127 0
-0.029423 -0.039423 -0.076995 127 127 0
-0.197973 -0.129126 0.257432 76 0 153
0.273282 -0.040662 0.248351 127 127 0
0.250170 0.615165 -0.238679 153 0 76
0.202682 -0.077217 0.413029 76 0 153
0.083730 0.258198 -0.250563 0 127 127
-0.355330 -0.053036 0.218204 127 127 0
-0.140390 -0.594554 -0.054101 0 255 0
0.242411 0.290030 -0.099785 153 0 76
0.117020 0.191804 -0.238073 153 0 76
-0.026871 -0.204311 0.171460 0 0 255
0.164940 0.688235 -0.168503 153 0 76
-0.020167 0.250646 -0.295897 0 127 127
-0.093799 -0.103003 -0.224359 76 153 0
-0.014275 0.805735 -0.298472 153 0 76
0.147940 -0.612606 -0.105542 153 0 76
0.227254 0.012075 0.325059 127 127 0
0.043340 -0.068943 0.358433 127 127 0
0.170736 -0.030882 0.129090 127 127 0
-0.068376 -0.246993 0.084360 153 0 76
-0.044648 -0.028461 0.398913 127 127 0
-0.266270 -0.657011 0.143988 255 0 0
-0.174579 -0.024738 -0.117314 127 127 0
-0.037781 -0.138550 -0.188431 76 153 0
-0.091721 0.030361 -0.324732 0 127 127
0.159278 -0.135039 0.198872 76 0 153
-0.129821 0.294365 -0.119608 153 0 76
-0.273262 0.619232 -0.245268 153 0 76
0.022778 -0.776052 0.588466 153 0 76
0.197368 0.570200 -0.145722 153 0 76
0.014846 -0.024386 0.478799 127 127 0
0.058863 -0.030330 0.410811 127 127 0
0.089975 0.853066 -0.295557 153 0 76
0.244851 0.204468 -0.108901 153 0 76
0.130321 -0.054464 0.234794 127 127 0
-0.198708 0.133494 -0.137467 153 0 76
-0.088830 -0.055170 0.506850 127 127 0
0.094087 -0.153041 0.454273 0 0 255
-0.229263 0.034048 -0.221255 127 127 0
0.111962 -0.026897 0.054781 127 127 0
0.006552 -0.579404 0.185001 0 0 255
-0.163168 0.075024 -0.181538 153 0 76
-0.310402 -0.630691 0.160371 255 0 0
-0.020898 -0.224927 0.405617 204 51 127
-0.290886 -0.093049 0.316002 76 0 153
0.240665 0.017186 0.276443 127 127 0
0.242891 -0.026574 0.043902 127 127 0
-0.309498 0.308622 -0.183074 153 0 76
-0.058398 -0.113051 0.273244 0 0 255
-0.133116 -0.079343 0.387610 76 0 153
0.089725 0.031221 0.143924 127 127 0
0.325293 -0.023755 0.236567 127 127 0
0.192721 0.627485 -0.266346 153 0 76
-0.255749 -0.107190 0.501045 127 127 0
0.259656 -0.029213 0.497172 127 127 0
-0.057312 0.262949 -0.123003 153 0 76
0.249856 -0.098077 0.365330 76 0 153
-0.066686 -0.041964 -0.206193 127 127 0
0.004554 -0.643167 0.242129 0 0 255
0.270554 0.628778 -0.143587 153 0 76
-0.319257 0.029537 0.159811 127 127 0
-0.509706 -0.704217 0.226560 255 0 0
-0.200681 0.620971 -0.272512 153 0 76
-0.049416 -0.626744 0.021290 76 153 0
-0.131707 0.014041 -0.192215 127 127 0
-0.220149 0.227800 -0.113935 153 0 76
-0.132619 0.187401 -0.132091 153 0 76
-0.040264 0.027888 -0.226009 127 127 0
0.192775 0.324431 -0.255438 0 127 127
0.018595 0.017833 0.271307 127 127 0
-0.060301 0.770591 -0.296587 153 0 76
-0.037990 0.750099 -0.188385 153 0 76
-0.273147 0.249382 -0.102260 153 0 76
0.220019 -0.071745 0.529748 127 127 0
-0.133189 0.035382 0.029986 127 127 0
-0.281135 0.382173 -0.102492 153 0 76
-0.204103 -0.082449 0.445646 127 127 0
-0.052517 -0.177733 0.353079 0 0 255
0.160370 0.000995 -0.192215 127 127 0
0.018354 0.086569 -0.266821 0 127 127
0.241485 -0.008140 -0.192215 127 127 0
-0.031212 0.172657 -0.308075 0 127 127
0.129500 0.286518 -0.275878 0 127 127
-0.063345 0.214037 -0.300093 0 127 127
0.227833 -0.044027 0.092651 127 127 0
0.114133 -0.135370 0.006840 76 0 153
0.137749 -0.024899 -0.012533 127 127 0
-0.323477 -0.039880 0.241047 127 127 0
0.120818 -0.012763 0.432439 127 127 0
0.004244 -0.605251 0.350779 0 0 255
-0.146521 0.363841 -0.273331 153 0 76
-0.056831 -0.064984 0.325916 127 127 0
-0.017860 -0.204311 0.108532 153 0 76
0.127180 0.884555 -0.250061 153 0 76
-0.031822 -0.677676 0.592929 0 0 255
0.072004 -0.024052 -0.041052 127 127 0
0.160236 -0.133605 0.435988 76 0 153
0.168748 0.397635 -0.120289 153 0 76
-0.042384 0.022895 0.223107 127 127 0
0.091368 0.098852 -0.260880 153 0 76
0.108038 -0.041132 -0.184045 127 127 0
0.147288 0.822878 -0.187617 153 0 76
-0.063198 0.850267 -0.299834 153 0 76
0.303529 0.219432 -0.120465 153 0 76
0.021236 -0.118187 0.242056 0 0 255
0.201184 -0.628948 0.132975 204 51 127
-0.290181 0.776058 -0.197642 153 0 76
0.013287 -0.127514 0.049492 0 0 255
0.185251 0.037055 -0.174355 127 127 0
0.260938 0.488714 -0.119324 153 0 76
0.166393 -0.121379 0.338095 76 0 153
0.059591 -0.159672 0.113548 0 0 255
0.055705 -0.123573 -0.304088 76 153 0
-0.173885 -0.155100 0.387317 76 0 153
0.272919 0.228429 -0.099020 153 0 76
0.088331 -0.043820 0.277874 127 127 0
-0.015670 -0.424784 0.042684 76 153 0
-0.031355 -0.555076 0.022231 0 255 0
-0.167108 -0.152969 0.182673 76 0 153
0.143553 -0.163167 0.303102 76 0 153
-0.286623 -0.793416 -0.415220 0 127 127
-0.336100 0.406918 -0.127868 153 0 76
0.057931 -0.156840 -0.047173 76 153 0
-0.134729 0.032404 0.119971 127 127 0
-0.072984 0.015890 0.289691 127 127 0
-0.441448 -0.690608 0.203422 255 0 0
-0.303635 -0.663011 0.199861 255 0 0
-0.290557 -0.053880 0.228011 127 127 0
0.159008 -0.047501 0.327966 127 127 0
-0.025177 -0.512748 0.049071 0 127 127
-0.027686 -0.040318 -0.009228 127 127 0
0.145624 -0.093125 -0.033453 76 0 153
0.037009 -0.048458 0.321224 127 127 0
0.275286 -0.814602 -0.377358 255 0 0
-0.266614 0.115520 -0.136853 153 0 76
-0.358288 -0.771367 -0.360302 127 0 127
0.081144 -0.040061 -0.126857 127 127 0
-0.258848 -0.694716 -0.283876 0 255 0
-0.414575 -0.651964 0.195663 255 0 0
0.226068 0.033474 0.095454 127 127 0
0.442857 -0.788156 0.203648 76 0 153
-0.244201 -0.622448 0.180225 255 0 0
0.034523 -0.142249 -0.159862 76 153 0
0.041303 -0.586884 0.063814 153 0 76
-0.312855 0.645957 -0.173916 153 0 76
-0.033966 -0.680167 0.489944 0 0 255
0.012949 0.006433 -0.337072 0 127 127
0.001328 -0.065289 -0.335580 0 127 127
0.057402 -0.616441 -0.051380 153 0 76
0.041128 0.722044 -0.183861 153 0 76
-0.205443 0.621661 -0.157235 153 0 76
0.045365 -0.053444 0.524861 127 127 0
-0.237010 0.582021 -0.145594 153 0 76
0.318731 -0.654602 0.172730 204 51 127
-0.051561 -0.185469 0.311317 0 0 255
0.021634 -0.446369 0.092373 0 127 127
-0.059586 -0.119193 0.235952 0 0 255
-0.039863 0.888100 -0.242269 153 0 76
0.072372 -0.603899 0.002360 153 0 76
-0.091495 -0.101521 0.388279 0 0 255
-0.366831 -0.680759 0.177925 255 0 0
-0.018454 -0.130720 0.463480 0 0 255
0.077568 -0.087909 0.480803 127 127 0
0.060355 -0.022776 0.472670 127 127 0
0.124622 -0.086098 0.531734 127 127 0
-0.016190 -0.100300 -0.307581 0 127 127
0.019294 0.100032 -0.164998 153 0 76
-0.290842 0.539957 -0.223687 153 0 76
-0.547515 -0.771581 0.195135 76 0 153
-0.351473 -0.034048 0.419185 127 127 0
-0.016899 -0.230930 0.031494 153 0 76
0.518117 -0.761022 0.229878 153 0 76
0.062912 0.058479 -0.316087 0 127 127
0.279212 -0.064400 0.321126 127 127 0
-0.095216 -0.145051 0.459641 0 0 255
-0.118223 -0.047231 0.309761 127 127 0
-0.068371 0.258564 -0.257061 0 127 127
-0.171338 -0.164445 0.301409 76 0 153
-0.089146 -0.589370 0.131909 255 0 0
-0.177422 0.847746 -0.196283 153 0 76
-0.049394 -0.130180 -0.253068 76 153 0
0.266229 0.024939 0.203241 127 127 0
-0.150398 0.424634 -0.278279 153 0 76
0.243490 0.514742 -0.238275 153 0 76
0.167269 -0.055302 0.083349 76 0 153
-0.258239 0.003774 0.361537 127 127 0
-0.018489 -0.142673 -0.156588 76 153 0
0.108277 0.583515 -0.158887 153 0 76
-0.329589 0.286564 -0.153797 153 0 76
0.231505 -0.088499 0.483357 127 127 0
-0.316460 -0.031812 0.351230 127 127 0
-0.059752 -0.070987 -0.291575 0 127 127
0.149885 0.120114 -0.143087 153 0 76
-0.221513 -0.091402 0.399043 76 0 153
-0.016761 -0.359416 0.137867 153 0 76
0.208305 -0.107792 0.529732 127 127 0
-0.288715 0.270867 -0.210642 153 0 76
-0.172347 0.752627 -0.180136 153 0 76
0.190576 -0.084984 0.461446 127 127 0
0.092817 -0.141586 -0.038359 76 153 0
0.254452 -0.035455 0.195666 127 127 0
0.273212 -0.630600 0.198486 204 51 127
-0.082650 0.525316 -0.294859 153 0 76
0.095721 -0.629675 -0.102814 153 0 76
0.016968 -0.040009 -0.122796 127 127 0
-0.170880 0.241161 -0.229537 153 0 76
-0.046157 -0.086669 -0.170466 76 153 0
-0.357731 -0.639887 0.215330 255 0 0
0.106140 -0.095322 0.308319 76 0 153
0.291640 -0.011164 -0.168551 127 127 0
0.110148 0.036997 -0.025428 127 127 0
-0.144113 -0.182314 0.239880 76 0 153
-0.305801 0.034211 0.012325 127 127 0
-0.280221 0.486083 -0.231317 153 0 76
-0.082608 0.345510 -0.286098 153 0 76
-0.202224 -0.027042 0.059668 127 127 0
0.419422 -0.699429 0.209247 204 51 127
0.260825 -0.024342 -0.075705 127 127 0
0.210502 0.488572 -0.250673 153 0 76
0.089687 -0.181271 0.141498 76 153 0
-0.008683 0.686565 -0.179331 153 0 76
0.148624 -0.121343 0.005179 76 0 153
-0.139653 0.037838 -0.054687 127 127 0
-0.063573 -0.279054 0.066438 153 0 76
-0.118935 -0.151776 -0.086290 76 153 0
-0.126826 0.468569 -0.286024 153 0 76
0.158191 -0.103147 0.373018 76 0 153
-0.196617 -0.084879 0.179273 76 0 153
0.484119 -0.778136 0.259926 204 51 127
0.106815 -0.025612 0.380782 127 127 0
0.247635 0.686271 -0.242400 153 0 76
-0.035003 -0.644526 0.369180 0 0 255
-0.152115 -0.654126 -0.080902 0 255 0
-0.227784 0.482181 -0.130253 153 0 76
-0.046884 0.067730 -0.245918 153 0 76
0.024692 -0.204311 0.070298 153 0 76
-0.201443 -0.041211 -0.186412 127 127 0
-0.050071 -0.034119 0.434956 127 127 0
0.301185 0.422041 -0.113401 153 0 76
0.255151 -0.652814 -0.256757 153 0 76
0.268399 0.307320 -0.198651 153 0 76
0.039821 -0.117826 0.524587 127 127 0
-0.235865 -0.653149 -0.250894 0 255 0
-0.318793 0.031946 -0.055478 127 127 0
0.304304 0.012919 0.296958 127 127 0
-0.161009 0.691196 -0.284178 153 0 76
-0.160185 -0.048813 0.326020 127 127 0
-0.246915 0.485886 -0.247528 153 0 76
0.498899 -0.705395 0.233200 204 51 127
-0.353829 -0.013545 0.240542 127 127 0
0.191790 -0.644060 -0.230569 153 0 76
-0.257675 -0.037488 0.342812 127 127 0
-0.090993 0.884861 -0.263821 153 0 76
-0.106307 0.024747 0.205128 127 127 0
-0.094377 -0.041403 -0.330310 0 127 127
0.161606 0.610079 -0.157559 153 0 76
0.322146 -0.008661 0.102360 127 127 0
-0.165730 -0.032548 0.424931 127 127 0
0.291479 0.556804 -0.143011 153 0 76
-0.136401 -0.089528 0.489776 127 127 0
-0.306693 0.022541 0.225873 127 127 0
-0.192541 0.878576 -0.255509 153 0 76
0.026727 -0.197017 0.235995 0 0 255
-0.089310 0.141785 -0.309333 0 127 127
0.306712 0.011773 -0.019637 127 127 0
0.154930 0.542571 -0.147235 153 0 76
-0.338075 0.309883 -0.116924 153 0 76
0.202135 0.148396 -0.128903 153 0 76
0.238378 0.329787 -0.100345 153 0 76
0.081498 -0.126215 0.134935 76 153 0
-0.015205 -0.729816 0.581515 153 76 0
0.133020 0.004519 0.358850 127 127 0
-0.063763 -0.317391 0.102178 153 0 76
-0.056318 -0.204311 0.130614 0 0 255
0.003142 -0.628881 0.451707 0 0 255
-0.030721 -0.594267 0.323656 0 0 255
-0.192300 -0.609532 0.163979 255 0 0
0.465482 -0.710556 0.255596 204 51 127
-0.103229 -0.160951 -0.015427 76 153 0
-0.236970 -0.092149 0.314931 76 0 153
0.271933 -0.696439 -0.277926 153 0 76
-0.039221 0.844288 -0.205696 153 0 76
0.289371 0.187846 -0.177110 153 0 76
-0.142718 0.848254 -0.292203 153 0 76
0.109651 -0.102581 0.152330 76 0 153
-0.003685 -0.024149 -0.055412 127 127 0
-0.282716 0.640634 -0.145639 153 0 76
0.008186 -0.615938 0.173243 0 0 255
0.164287 -0.123685 0.470734 76 0 153
-0.152741 0.501687 -0.282145 153 0 76
-0.193050 0.006582 0.349834 127 127 0
-0.228207 0.314525 -0.217828 153 0 76
-0.002644 -0.150402 -0.096899 76 153 0
-0.016842 0.566236 -0.159882 153 0 76
-0.055867 -0.127514 0.147440 0 0 255
0.328951 -0.042198 0.187316 127 127 0
-0.061786 -0.040196 -0.137379 127 127 0
-0.097454 -0.086394 -0.328276 0 127 127
0.018180 0.005744 0.354038 127 127 0
0.062098 -0.100640 0.365110 0 0 255
0.279095 -0.039905 -0.114648 127 127 0
0.275220 0.238943 -0.191288 153 0 76
-0.137572 -0.128338 0.283949 76 0 153
0.320658 -0.072785 0.385400 127 127 0
-0.122121 -0.039523 0.469647 127 127 0
-0.067536 0.038603 -0.080571 127 127 0
0.042884 -0.149883 0.457431 0 0 255
0.095854 -0.040220 -0.014097 127 127 0
0.155080 -0.122381 0.069488 76 0 153
-0.220086 -0.057840 0.267251 127 127 0
-0.169939 -0.143931 0.130537 76 0 153
0.188215 -0.041774 -0.201522 127 127 0
-0.214791 0.387492 -0.116428 153 0 76
0.228696 0.512730 -0.130090 153 0 76
0.019741 -0.086347 0.418103 0 0 255
-0.328079 -0.029788 0.113164 127 127 0
-0.240879 -0.646307 -0.194893 0 255 0
-0.042517 0.034979 0.043791 127 127 0
0.003085 0.039583 -0.114176 127 127 0
-0.122214 -0.151620 0.124224 76 153 0
0.132200 -0.157652 0.425792 76 0 153
-0.031689 -0.633421 0.191221 0 0 255
0.152890 0.875110 -0.209292 153 0 76
-0.033233 -0.570182 0.224481 0 0 255
-0.123829 -0.028246 0.397543 127 127 0
0.090900 0.887017 -0.235630 153 0 76
0.074618 0.068582 -0.191560 153 0 76
-0.324153 0.138806 -0.152932 153 0 76
0.088779 -0.176399 0.272872 76 153 0
-0.058692 -0.038487 0.228020 127 127 0
0.020114 -0.080548 -0.217738 76 153 0
0.114101 -0.159589 0.063859 76 0 153
-0.293686 0.089849 -0.189025 153 0 76
0.017864 0.570364 -0.297233 153 0 76
-0.055402 -0.410810 0.090390 76 153 0
0.048308 0.541406 -0.295262 153 0 76
0.313525 -0.692957 -0.337868 153 0 76
0.248407 -0.032825 0.157382 127 127 0
-0.256735 -0.039746 -0.102251 127 127 0
0.018779 -0.036737 0.211667 127 127 0
0.009945 0.023659 0.215851 127 127 0
-0.017374 0.001094 -0.290105 0 127 127
0.071774 0.611051 -0.292563 153 0 76
-0.514858 -0.755367 0.258287 76 0 153
-0.202790 -0.039670 -0.096318 127 127 0
0.111940 -0.605950 0.148624 204 51 127
-0.195187 -0.131802 0.422712 76 0 153
0.081341 0.221200 -0.270612 0 127 127
0.194292 -0.032727 0.155952 127 127 0
-0.238336 0.356830 -0.249450 0 127 127
-0.334260 -0.005095 -0.048658 127 127 0
-0.139625 0.401539 -0.127532 153 0 76
0.082844 -0.574129 -0.014670 153 0 76
-0.011921 -0.778136 0.536164 153 76 0
-0.052582 0.010211 0.335010 127 127 0
0.263917 -0.670211 0.193923 204 51 127
0.171238 -0.045340 0.292080 127 127 0
-0.325226 -0.011824 -0.132264 127 127 0
0.020077 0.112608 -0.318550 0 127 127
0.126506 0.032302 0.122143 127 127 0
0.025484 -0.520208 0.092335 76 153 0
0.210813 -0.659420 0.174950 204 51 127
0.036441 -0.036270 -0.296545 0 127 127
0.007090 -0.551337 0.146881 0 0 255
0.264595 -0.642093 0.154449 204 51 127
0.235867 0.201709 -0.224018 153 0 76
-0.033592 0.032875 0.110035 127 127 0
0.206018 0.230068 -0.111090 153 0 76
-0.274023 -0.097562 0.392133 76 0 153
-0.084956 -0.012751 -0.192215 127 127 0
-0.259456 0.017670 0.271878 127 127 0
0.457128 -0.665115 0.255606 204 51 127
-0.339290 0.015177 0.011317 127 127 0
-0.037016 0.464519 -0.297481 153 0 76
0.138024 -0.039293 -0.066860 127 127 0
0.114037 -0.107332 -0.043225 76 0 153
0.144513 0.276089 -0.115718 153 0 76
0.243117 0.377219 -0.189757 0 127 127
0.200744 0.038360 -0.112659 127 127 0
0.294523 0.031498 0.107235 127 127 0
0.157077 0.766298 -0.280204 153 0 76
0.068056 0.095490 -0.287224 0 127 127
0.404429 -0.660456 0.239449 204 51 127
-0.197429 -0.109979 0.068388 76 0 153
0.265279 0.742476 -0.202424 153 0 76
-0.178402 -0.060535 -0.033662 76 0 153
0.039950 -0.593233 0.127718 204 51 127
-0.292717 0.001178 -0.218428 127 127 0
0.037322 0.037792 -0.052711 127 127 0
-0.232729 0.109761 -0.144446 153 0 76
-0.275559 0.596794 -0.140534 153 0 76
-0.017316 -0.227093 0.330328 0 0 255
-0.197045 0.037591 -0.166555 127 127 0
-0.206470 0.799190 -0.179592 153 0 76
-0.174673 0.276139 -0.229884 153 0 76
-0.110535 -0.575366 -0.044920 0 255 0
-0.079801 -0.108097 0.303324 0 0 255
0.231975 0.638521 -0.149856 153 0 76
0.149186 -0.140095 0.165597 76 0 153
-0.077117 -0.605271 -0.038256 0 255 0
0.111853 -0.106907 0.056212 76 0 153
-0.206058 -0.052354 0.210274 127 127 0
-0.209533 0.037597 -0.046967 127 127 0
0.168216 0.306746 -0.230216 153 0 76
0.262309 0.003711 0.361633 127 127 0
0.098196 0.421050 -0.131469 153 0 76
-0.078365 -0.127514 0.084038 0 0 255
0.211948 0.273753 -0.105906 153 0 76
-0.172705 -0.056956 0.259988 127 127 0
0.023028 -0.011125 -0.232019 127 127 0
0.112736 0.024953 0.203102 127 127 0
0.227992 0.081655 -0.202462 153 0 76
0.125711 0.078927 -0.254186 153 0 76
-0.083985 -0.044992 0.110825 127 127 0
-0.099005 -0.128080 0.149343 76 153 0
-0.055413 0.660099 -0.174779 153 0 76
0.158191 -0.109162 0.407544 76 0 153
-0.125496 0.722234 -0.181196 153 0 76
0.297585 0.395170 -0.163080 153 0 76
-0.336554 -0.677403 -0.330159 0 255 0
0.277590 -0.765192 -0.397276 0 0 255
0.185668 0.430125 -0.256487 153 0 76
-0.238500 -0.041265 -0.232019 127 127 0
0.320661 -0.034627 0.451532 127 127 0
0.002398 -0.714924 0.622240 153 76 0
-0.311405 -0.736905 -0.326590 127 127 0
-0.272943 -0.101183 0.531965 127 127 0
-0.327962 -0.074127 0.393767 127 127 0
0.092665 0.486207 -0.286993 153 0 76
0.164499 -0.069117 0.232732 76 0 153
-0.195767 -0.091402 0.372691 76 0 153
-0.149082 -0.041570 -0.196489 127 127 0
0.229858 0.846237 -0.248795 153 0 76
0.025213 -0.343292 0.051139 153 0 76
0.212790 -0.040008 -0.024593 127 127 0
0.080318 -0.040854 0.017405 127 127 0
-0.280315 -0.669823 -0.310641 0 255 0
-0.110341 0.872293 -0.217296 153 0 76
-0.320521 0.468621 -0.180950 153 0 76
-0.164930 0.580942 -0.156546 153 0 76
0.250089 0.788382 -0.172010 153 0 76
-0.139399 0.012517 0.321473 127 127 0
-0.303438 0.035175 -0.103010 127 127 0
-0.068472 0.292390 -0.292888 0 127 127
0.256775 -0.045333 0.117226 127 127 0
0.052915 -0.632742 0.006458 153 0 76
-0.154110 0.036281 -0.000880 127 127 0
-0.282432 0.711124 -0.155157 153 0 76
0.023758 -0.025617 0.011657 127 127 0
-0.064475 0.147783 -0.264822 0 127 127
0.364441 -0.669717 0.227700 204 51 127
-0.314443 0.217533 -0.180150 153 0 76
-0.138807 -0.024480 -0.090212 127 127 0
0.019331 0.411249 -0.132240 153 0 76
-0.144373 0.256807 -0.273707 0 127 127
0.008973 0.298971 -0.293139 0 127 127
0.031440 -0.623257 0.095547 0 127 127
0.259697 -0.090213 0.532303 127 127 0
-0.288924 -0.024092 -0.039709 127 127 0
0.239232 -0.046164 0.299786 127 127 0
-0.164733 0.023205 0.219611 127 127 0
-0.030980 -0.752239 0.608447 76 0 153
-0.125988 -0.026914 0.055362 127 127 0
0.042654 -0.024582 -0.100992 127 127 0
-0.037177 -0.596541 0.167486 0 0 255
0.446709 -0.672806 0.216408 204 51 127
0.104337 -0.119745 0.473209 76 0 153
-0.052855 -0.080451 -0.218483 76 153 0
-0.044635 -0.086499 0.470890 127 127 0
-0.352581 0.000243 0.274752 127 127 0
0.105828 -0.125541 0.389384 76 0 153
-0.123695 -0.160194 0.447119 76 0 153
-0.028058 0.036990 -0.025217 127 127 0
-0.225159 0.877079 -0.213230 153 0 76
0.133153 -0.642061 0.120494 204 51 127
0.192882 0.034778 0.050709 127 127 0
0.130250 -0.078659 0.422020 127 127 0
-0.304238 -0.001483 0.383849 127 127 0
0.290047 -0.042990 0.073136 127 127 0
0.026574 -0.284111 0.052500 153 0 76
-0.248167 -0.594994 0.149203 255 0 0
-0.123182 0.066901 -0.234676 153 0 76
0.068693 -0.014511 0.439843 127 127 0
-0.471477 -0.649572 0.224886 255 0 0
-0.294028 -0.024642 -0.107300 127 127 0
0.120372 0.440595 -0.279547 153 0 76
-0.321989 0.421920 -0.173547 153 0 76
-0.236791 -0.066972 0.342248 127 127 0
-0.197051 -0.068965 0.112155 76 0 153
-0.030980 -0.736499 0.551200 76 0 153
-0.018060 -0.042568 0.489087 127 127 0
-0.033902 -0.127514 0.024676 0 0 255
0.135927 -0.162730 0.377661 76 0 153
0.043555 0.137365 -0.314232 0 127 127
0.012327 -0.074228 0.530091 127 127 0
0.091466 0.038367 -0.206822 127 127 0
-0.084469 -0.001530 -0.232019 127 127 0
-0.047279 -0.092935 0.395383 0 0 255
0.124208 0.445684 -0.133496 153 0 76
0.286139 -0.040436 -0.003371 127 127 0
-0.140391 -0.103327 0.089026 76 0 153
-0.183703 -0.632216 -0.113756 0 255 0
0.064402 -0.096813 -0.193507 76 153 0
-0.178233 0.184237 -0.237778 153 0 76
0.005395 -0.658322 0.395133 0 0 255
-0.340155 0.027185 0.113465 127 127 0
0.033666 0.785442 -0.192646 153 0 76
-0.134495 -0.615462 0.146698 255 0 0
-0.011614 -0.123836 -0.336421 0 127 127
-0.090253 -0.123981 0.206876 0 0 255
0.007986 -0.660774 0.108137 0 127 127
0.165717 -0.056323 0.507347 127 127 0
-0.185023 -0.026078 0.027199 127 127 0
-0.093799 -0.080277 -0.271840 76 153 0
-0.300348 0.013481 0.311436 127 127 0
-0.282316 0.531131 -0.128233 153 0 76
0.181231 -0.585100 0.132895 204 51 127
0.161898 -0.025108 -0.156346 127 127 0
-0.017253 -0.087725 0.431244 0 0 255
-0.099340 0.034146 0.072392 127 127 0
-0.170640 -0.667676 -0.154937 0 255 0
-0.327769 0.450538 -0.114915 153 0 76
-0.032470 -0.690057 0.113050 0 127 127
-0.160658 0.885248 -0.238316 153 0 76
-0.186081 0.348921 -0.233654 0 127 127
-0.023037 -0.120886 0.225670 0 0 255
0.135281 -0.009035 -0.228926 127 127 0
-0.300438 -0.689573 -0.338462 0 255 0
-0.126853 -0.084233 0.456767 127 127 0
-0.020544 -0.653924 0.298324 0 0 255
0.108204 -0.030519 0.123810 127 127 0
0.096448 0.551912 -0.287949 153 0 76
-0.057839 -0.168126 0.428171 0 0 255
-0.498944 -0.754530 0.168930 76 153 0
0.266837 0.266625 -0.096205 153 0 76
0.061017 -0.141805 0.021289 76 153 0
-0.259877 0.205228 -0.224325 153 0 76
0.143968 0.065532 -0.210590 153 0 76
-0.045762 -0.515797 0.106052 76 153 0
-0.265386 0.807588 -0.250432 153 0 76
0.148990 0.329643 -0.271921 0 127 127
0.066719 -0.121931 0.101853 76 153 0
0.116744 0.303734 -0.117801 153 0 76
-0.100160 -0.049343 0.175300 127 127 0
-0.045602 0.662561 -0.297081 153 0 76
-0.286476 -0.642934 -0.260987 0 255 0
-0.002465 0.038146 -0.064883 127 127 0
-0.040556 -0.561141 0.140551 76 153 0
0.287368 0.610643 -0.173113 153 0 76
-0.023166 -0.091186 -0.135582 76 153 0
0.166330 0.020073 0.249184 127 127 0
-0.094567 -0.141734 0.047381 76 153 0
0.107160 -0.076688 0.215728 76 0 153
0.168894 -0.053869 0.003789 76 0 153
0.286540 0.435205 -0.184270 153 0 76
0.147291 -0.668137 -0.153522 153 0 76
-0.019056 0.499303 -0.147941 153 0 76
0.256252 -0.024691 -0.222709 127 127 0
